ply
format ascii 1.0
comment Generated by Gemini AI - LoD2 Grid Building
element vertex 2278
property float x
property float y
property float z
end_header
3.0000 1.0000 0.0000
2.0000 1.0000 0.0338
2.0345 1.0000 0.0338
2.0690 1.0000 0.0338
2.1034 1.0000 0.0338
2.1379 1.0000 0.0338
2.1724 1.0000 0.0338
2.2069 1.0000 0.0338
2.2414 1.0000 0.0338
2.2759 1.0000 0.0338
2.3103 1.0000 0.0338
2.3448 1.0000 0.0338
2.3793 1.0000 0.0338
2.4138 1.0000 0.0338
2.4483 1.0000 0.0338
2.4828 1.0000 0.0338
2.5172 1.0000 0.0338
2.5517 1.0000 0.0338
2.5862 1.0000 0.0338
2.6207 1.0000 0.0338
2.6552 1.0000 0.0338
2.6897 1.0000 0.0338
2.7241 1.0000 0.0338
2.7586 1.0000 0.0338
2.7931 1.0000 0.0338
2.8276 1.0000 0.0338
2.8621 1.0000 0.0338
2.8966 1.0000 0.0338
2.9310 1.0000 0.0338
2.9655 1.0000 0.0338
3.0000 1.0000 0.0338
2.0000 1.0000 0.0676
2.0345 1.0000 0.0676
2.0690 1.0000 0.0676
2.1034 1.0000 0.0676
2.1379 1.0000 0.0676
2.1724 1.0000 0.0676
2.2069 1.0000 0.0676
2.2414 1.0000 0.0676
2.2759 1.0000 0.0676
2.3103 1.0000 0.0676
2.3448 1.0000 0.0676
2.3793 1.0000 0.0676
2.4138 1.0000 0.0676
2.4483 1.0000 0.0676
2.4828 1.0000 0.0676
2.5172 1.0000 0.0676
2.5517 1.0000 0.0676
2.5862 1.0000 0.0676
2.6207 1.0000 0.0676
2.6552 1.0000 0.0676
2.6897 1.0000 0.0676
2.7241 1.0000 0.0676
2.7586 1.0000 0.0676
2.7931 1.0000 0.0676
2.8276 1.0000 0.0676
2.8621 1.0000 0.0676
2.8966 1.0000 0.0676
2.9310 1.0000 0.0676
2.9655 1.0000 0.0676
3.0000 1.0000 0.0676
2.0000 1.0000 0.1014
2.0345 1.0000 0.1014
2.0690 1.0000 0.1014
2.1034 1.0000 0.1014
2.1379 1.0000 0.1014
2.1724 1.0000 0.1014
2.2069 1.0000 0.1014
2.2414 1.0000 0.1014
2.2759 1.0000 0.1014
2.3103 1.0000 0.1014
2.3448 1.0000 0.1014
2.3793 1.0000 0.1014
2.4138 1.0000 0.1014
2.4483 1.0000 0.1014
2.4828 1.0000 0.1014
2.5172 1.0000 0.1014
2.5517 1.0000 0.1014
2.5862 1.0000 0.1014
2.6207 1.0000 0.1014
2.6552 1.0000 0.1014
2.6897 1.0000 0.1014
2.7241 1.0000 0.1014
2.7586 1.0000 0.1014
2.7931 1.0000 0.1014
2.8276 1.0000 0.1014
2.8621 1.0000 0.1014
2.8966 1.0000 0.1014
2.9310 1.0000 0.1014
2.9655 1.0000 0.1014
3.0000 1.0000 0.1014
2.0000 1.0000 0.1351
2.0345 1.0000 0.1351
2.0690 1.0000 0.1351
2.1034 1.0000 0.1351
2.1379 1.0000 0.1351
2.1724 1.0000 0.1351
2.2069 1.0000 0.1351
2.2414 1.0000 0.1351
2.2759 1.0000 0.1351
2.3103 1.0000 0.1351
2.3448 1.0000 0.1351
2.3793 1.0000 0.1351
2.4138 1.0000 0.1351
2.4483 1.0000 0.1351
2.4828 1.0000 0.1351
2.5172 1.0000 0.1351
2.5517 1.0000 0.1351
2.5862 1.0000 0.1351
2.6207 1.0000 0.1351
2.6552 1.0000 0.1351
2.6897 1.0000 0.1351
2.7241 1.0000 0.1351
2.7586 1.0000 0.1351
2.7931 1.0000 0.1351
2.8276 1.0000 0.1351
2.8621 1.0000 0.1351
2.8966 1.0000 0.1351
2.9310 1.0000 0.1351
2.9655 1.0000 0.1351
3.0000 1.0000 0.1351
2.0000 1.0000 0.1689
2.0345 1.0000 0.1689
2.0690 1.0000 0.1689
2.1034 1.0000 0.1689
2.1379 1.0000 0.1689
2.1724 1.0000 0.1689
2.2069 1.0000 0.1689
2.2414 1.0000 0.1689
2.2759 1.0000 0.1689
2.3103 1.0000 0.1689
2.3448 1.0000 0.1689
2.3793 1.0000 0.1689
2.4138 1.0000 0.1689
2.4483 1.0000 0.1689
2.4828 1.0000 0.1689
2.5172 1.0000 0.1689
2.5517 1.0000 0.1689
2.5862 1.0000 0.1689
2.6207 1.0000 0.1689
2.6552 1.0000 0.1689
2.6897 1.0000 0.1689
2.7241 1.0000 0.1689
2.7586 1.0000 0.1689
2.7931 1.0000 0.1689
2.8276 1.0000 0.1689
2.8621 1.0000 0.1689
2.8966 1.0000 0.1689
2.9310 1.0000 0.1689
2.9655 1.0000 0.1689
3.0000 1.0000 0.1689
2.0000 1.0000 0.2027
2.0345 1.0000 0.2027
2.0690 1.0000 0.2027
2.1034 1.0000 0.2027
2.1379 1.0000 0.2027
2.1724 1.0000 0.2027
2.2069 1.0000 0.2027
2.2414 1.0000 0.2027
2.2759 1.0000 0.2027
2.3103 1.0000 0.2027
2.3448 1.0000 0.2027
2.3793 1.0000 0.2027
2.4138 1.0000 0.2027
2.4483 1.0000 0.2027
2.4828 1.0000 0.2027
2.5172 1.0000 0.2027
2.5517 1.0000 0.2027
2.5862 1.0000 0.2027
2.6207 1.0000 0.2027
2.6552 1.0000 0.2027
2.6897 1.0000 0.2027
2.7241 1.0000 0.2027
2.7586 1.0000 0.2027
2.7931 1.0000 0.2027
2.8276 1.0000 0.2027
2.8621 1.0000 0.2027
2.8966 1.0000 0.2027
2.9310 1.0000 0.2027
2.9655 1.0000 0.2027
3.0000 1.0000 0.2027
2.0000 1.0000 0.2365
2.0345 1.0000 0.2365
2.0690 1.0000 0.2365
2.1034 1.0000 0.2365
2.1379 1.0000 0.2365
2.1724 1.0000 0.2365
2.2069 1.0000 0.2365
2.2414 1.0000 0.2365
2.2759 1.0000 0.2365
2.3103 1.0000 0.2365
2.3448 1.0000 0.2365
2.3793 1.0000 0.2365
2.4138 1.0000 0.2365
2.4483 1.0000 0.2365
2.4828 1.0000 0.2365
2.5172 1.0000 0.2365
2.5517 1.0000 0.2365
2.5862 1.0000 0.2365
2.6207 1.0000 0.2365
2.6552 1.0000 0.2365
2.6897 1.0000 0.2365
2.7241 1.0000 0.2365
2.7586 1.0000 0.2365
2.7931 1.0000 0.2365
2.8276 1.0000 0.2365
2.8621 1.0000 0.2365
2.8966 1.0000 0.2365
2.9310 1.0000 0.2365
2.9655 1.0000 0.2365
3.0000 1.0000 0.2365
2.0000 1.0000 0.2703
2.0345 1.0000 0.2703
2.0690 1.0000 0.2703
2.1034 1.0000 0.2703
2.1379 1.0000 0.2703
2.1724 1.0000 0.2703
2.2069 1.0000 0.2703
2.2414 1.0000 0.2703
2.2759 1.0000 0.2703
2.3103 1.0000 0.2703
2.3448 1.0000 0.2703
2.3793 1.0000 0.2703
2.4138 1.0000 0.2703
2.4483 1.0000 0.2703
2.4828 1.0000 0.2703
2.5172 1.0000 0.2703
2.5517 1.0000 0.2703
2.5862 1.0000 0.2703
2.6207 1.0000 0.2703
2.6552 1.0000 0.2703
2.6897 1.0000 0.2703
2.7241 1.0000 0.2703
2.7586 1.0000 0.2703
2.7931 1.0000 0.2703
2.8276 1.0000 0.2703
2.8621 1.0000 0.2703
2.8966 1.0000 0.2703
2.9310 1.0000 0.2703
2.9655 1.0000 0.2703
3.0000 1.0000 0.2703
2.0000 1.0000 0.3041
2.0345 1.0000 0.3041
2.0690 1.0000 0.3041
2.1034 1.0000 0.3041
2.1379 1.0000 0.3041
2.1724 1.0000 0.3041
2.2069 1.0000 0.3041
2.2414 1.0000 0.3041
2.2759 1.0000 0.3041
2.3103 1.0000 0.3041
2.3448 1.0000 0.3041
2.3793 1.0000 0.3041
2.4138 1.0000 0.3041
2.4483 1.0000 0.3041
2.4828 1.0000 0.3041
2.5172 1.0000 0.3041
2.5517 1.0000 0.3041
2.5862 1.0000 0.3041
2.6207 1.0000 0.3041
2.6552 1.0000 0.3041
2.6897 1.0000 0.3041
2.7241 1.0000 0.3041
2.7586 1.0000 0.3041
2.7931 1.0000 0.3041
2.8276 1.0000 0.3041
2.8621 1.0000 0.3041
2.8966 1.0000 0.3041
2.9310 1.0000 0.3041
2.9655 1.0000 0.3041
3.0000 1.0000 0.3041
2.0000 1.0000 0.3378
2.0345 1.0000 0.3378
2.0690 1.0000 0.3378
2.1034 1.0000 0.3378
2.1379 1.0000 0.3378
2.1724 1.0000 0.3378
2.2069 1.0000 0.3378
2.2414 1.0000 0.3378
2.2759 1.0000 0.3378
2.3103 1.0000 0.3378
2.3448 1.0000 0.3378
2.3793 1.0000 0.3378
2.4138 1.0000 0.3378
2.4483 1.0000 0.3378
2.4828 1.0000 0.3378
2.5172 1.0000 0.3378
2.5517 1.0000 0.3378
2.5862 1.0000 0.3378
2.6207 1.0000 0.3378
2.6552 1.0000 0.3378
2.6897 1.0000 0.3378
2.7241 1.0000 0.3378
2.7586 1.0000 0.3378
2.7931 1.0000 0.3378
2.8276 1.0000 0.3378
2.8621 1.0000 0.3378
2.8966 1.0000 0.3378
2.9310 1.0000 0.3378
2.9655 1.0000 0.3378
3.0000 1.0000 0.3378
2.0000 1.0000 0.3716
2.0345 1.0000 0.3716
2.0690 1.0000 0.3716
2.1034 1.0000 0.3716
2.1379 1.0000 0.3716
2.1724 1.0000 0.3716
2.2069 1.0000 0.3716
2.2414 1.0000 0.3716
2.2759 1.0000 0.3716
2.3103 1.0000 0.3716
2.3448 1.0000 0.3716
2.3793 1.0000 0.3716
2.4138 1.0000 0.3716
2.4483 1.0000 0.3716
2.4828 1.0000 0.3716
2.5172 1.0000 0.3716
2.5517 1.0000 0.3716
2.5862 1.0000 0.3716
2.6207 1.0000 0.3716
2.6552 1.0000 0.3716
2.6897 1.0000 0.3716
2.7241 1.0000 0.3716
2.7586 1.0000 0.3716
2.7931 1.0000 0.3716
2.8276 1.0000 0.3716
2.8621 1.0000 0.3716
2.8966 1.0000 0.3716
2.9310 1.0000 0.3716
2.9655 1.0000 0.3716
3.0000 1.0000 0.3716
2.0000 1.0000 0.4054
2.0345 1.0000 0.4054
2.0690 1.0000 0.4054
2.1034 1.0000 0.4054
2.1379 1.0000 0.4054
2.1724 1.0000 0.4054
2.2069 1.0000 0.4054
2.2414 1.0000 0.4054
2.2759 1.0000 0.4054
2.3103 1.0000 0.4054
2.3448 1.0000 0.4054
2.3793 1.0000 0.4054
2.4138 1.0000 0.4054
2.4483 1.0000 0.4054
2.4828 1.0000 0.4054
2.5172 1.0000 0.4054
2.5517 1.0000 0.4054
2.5862 1.0000 0.4054
2.6207 1.0000 0.4054
2.6552 1.0000 0.4054
2.6897 1.0000 0.4054
2.7241 1.0000 0.4054
2.7586 1.0000 0.4054
2.7931 1.0000 0.4054
2.8276 1.0000 0.4054
2.8621 1.0000 0.4054
2.8966 1.0000 0.4054
2.9310 1.0000 0.4054
2.9655 1.0000 0.4054
3.0000 1.0000 0.4054
2.0000 1.0000 0.4392
2.0345 1.0000 0.4392
2.0690 1.0000 0.4392
2.1034 1.0000 0.4392
2.1379 1.0000 0.4392
2.1724 1.0000 0.4392
2.2069 1.0000 0.4392
2.2414 1.0000 0.4392
2.2759 1.0000 0.4392
2.3103 1.0000 0.4392
2.3448 1.0000 0.4392
2.3793 1.0000 0.4392
2.4138 1.0000 0.4392
2.4483 1.0000 0.4392
2.4828 1.0000 0.4392
2.5172 1.0000 0.4392
2.5517 1.0000 0.4392
2.5862 1.0000 0.4392
2.6207 1.0000 0.4392
2.6552 1.0000 0.4392
2.6897 1.0000 0.4392
2.7241 1.0000 0.4392
2.7586 1.0000 0.4392
2.7931 1.0000 0.4392
2.8276 1.0000 0.4392
2.8621 1.0000 0.4392
2.8966 1.0000 0.4392
2.9310 1.0000 0.4392
2.9655 1.0000 0.4392
3.0000 1.0000 0.4392
2.0000 1.0000 0.4730
2.0345 1.0000 0.4730
2.0690 1.0000 0.4730
2.1034 1.0000 0.4730
2.1379 1.0000 0.4730
2.1724 1.0000 0.4730
2.2069 1.0000 0.4730
2.2414 1.0000 0.4730
2.2759 1.0000 0.4730
2.3103 1.0000 0.4730
2.3448 1.0000 0.4730
2.3793 1.0000 0.4730
2.4138 1.0000 0.4730
2.4483 1.0000 0.4730
2.4828 1.0000 0.4730
2.5172 1.0000 0.4730
2.5517 1.0000 0.4730
2.5862 1.0000 0.4730
2.6207 1.0000 0.4730
2.6552 1.0000 0.4730
2.6897 1.0000 0.4730
2.7241 1.0000 0.4730
2.7586 1.0000 0.4730
2.7931 1.0000 0.4730
2.8276 1.0000 0.4730
2.8621 1.0000 0.4730
2.8966 1.0000 0.4730
2.9310 1.0000 0.4730
2.9655 1.0000 0.4730
3.0000 1.0000 0.4730
2.0000 1.0000 0.5068
2.0345 1.0000 0.5068
2.0690 1.0000 0.5068
2.1034 1.0000 0.5068
2.1379 1.0000 0.5068
2.1724 1.0000 0.5068
2.2069 1.0000 0.5068
2.2414 1.0000 0.5068
2.2759 1.0000 0.5068
2.3103 1.0000 0.5068
2.3448 1.0000 0.5068
2.3793 1.0000 0.5068
2.4138 1.0000 0.5068
2.4483 1.0000 0.5068
2.4828 1.0000 0.5068
2.5172 1.0000 0.5068
2.5517 1.0000 0.5068
2.5862 1.0000 0.5068
2.6207 1.0000 0.5068
2.6552 1.0000 0.5068
2.6897 1.0000 0.5068
2.7241 1.0000 0.5068
2.7586 1.0000 0.5068
2.7931 1.0000 0.5068
2.8276 1.0000 0.5068
2.8621 1.0000 0.5068
2.8966 1.0000 0.5068
2.9310 1.0000 0.5068
2.9655 1.0000 0.5068
3.0000 1.0000 0.5068
2.0000 1.0000 0.5405
2.0345 1.0000 0.5405
2.0690 1.0000 0.5405
2.1034 1.0000 0.5405
2.1379 1.0000 0.5405
2.1724 1.0000 0.5405
2.2069 1.0000 0.5405
2.2414 1.0000 0.5405
2.2759 1.0000 0.5405
2.3103 1.0000 0.5405
2.3448 1.0000 0.5405
2.3793 1.0000 0.5405
2.4138 1.0000 0.5405
2.4483 1.0000 0.5405
2.4828 1.0000 0.5405
2.5172 1.0000 0.5405
2.5517 1.0000 0.5405
2.5862 1.0000 0.5405
2.6207 1.0000 0.5405
2.6552 1.0000 0.5405
2.6897 1.0000 0.5405
2.7241 1.0000 0.5405
2.7586 1.0000 0.5405
2.7931 1.0000 0.5405
2.8276 1.0000 0.5405
2.8621 1.0000 0.5405
2.8966 1.0000 0.5405
2.9310 1.0000 0.5405
2.9655 1.0000 0.5405
3.0000 1.0000 0.5405
2.0000 1.0000 0.5743
2.0345 1.0000 0.5743
2.0690 1.0000 0.5743
2.1034 1.0000 0.5743
2.1379 1.0000 0.5743
2.1724 1.0000 0.5743
2.2069 1.0000 0.5743
2.2414 1.0000 0.5743
2.2759 1.0000 0.5743
2.3103 1.0000 0.5743
2.3448 1.0000 0.5743
2.3793 1.0000 0.5743
2.4138 1.0000 0.5743
2.4483 1.0000 0.5743
2.4828 1.0000 0.5743
2.5172 1.0000 0.5743
2.5517 1.0000 0.5743
2.5862 1.0000 0.5743
2.6207 1.0000 0.5743
2.6552 1.0000 0.5743
2.6897 1.0000 0.5743
2.7241 1.0000 0.5743
2.7586 1.0000 0.5743
2.7931 1.0000 0.5743
2.8276 1.0000 0.5743
2.8621 1.0000 0.5743
2.8966 1.0000 0.5743
2.9310 1.0000 0.5743
2.9655 1.0000 0.5743
3.0000 1.0000 0.5743
2.0000 1.0000 0.6081
2.0345 1.0000 0.6081
2.0690 1.0000 0.6081
2.1034 1.0000 0.6081
2.1379 1.0000 0.6081
2.1724 1.0000 0.6081
2.2069 1.0000 0.6081
2.2414 1.0000 0.6081
2.2759 1.0000 0.6081
2.3103 1.0000 0.6081
2.3448 1.0000 0.6081
2.3793 1.0000 0.6081
2.4138 1.0000 0.6081
2.4483 1.0000 0.6081
2.4828 1.0000 0.6081
2.5172 1.0000 0.6081
2.5517 1.0000 0.6081
2.5862 1.0000 0.6081
2.6207 1.0000 0.6081
2.6552 1.0000 0.6081
2.6897 1.0000 0.6081
2.7241 1.0000 0.6081
2.7586 1.0000 0.6081
2.7931 1.0000 0.6081
2.8276 1.0000 0.6081
2.8621 1.0000 0.6081
2.8966 1.0000 0.6081
2.9310 1.0000 0.6081
2.9655 1.0000 0.6081
3.0000 1.0000 0.6081
2.0000 1.0000 0.6419
2.0345 1.0000 0.6419
2.0690 1.0000 0.6419
2.1034 1.0000 0.6419
2.1379 1.0000 0.6419
2.1724 1.0000 0.6419
2.2069 1.0000 0.6419
2.2414 1.0000 0.6419
2.2759 1.0000 0.6419
2.3103 1.0000 0.6419
2.3448 1.0000 0.6419
2.3793 1.0000 0.6419
2.4138 1.0000 0.6419
2.4483 1.0000 0.6419
2.4828 1.0000 0.6419
2.5172 1.0000 0.6419
2.5517 1.0000 0.6419
2.5862 1.0000 0.6419
2.6207 1.0000 0.6419
2.6552 1.0000 0.6419
2.6897 1.0000 0.6419
2.7241 1.0000 0.6419
2.7586 1.0000 0.6419
2.7931 1.0000 0.6419
2.8276 1.0000 0.6419
2.8621 1.0000 0.6419
2.8966 1.0000 0.6419
2.9310 1.0000 0.6419
2.9655 1.0000 0.6419
3.0000 1.0000 0.6419
2.0000 1.0000 0.6757
2.0345 1.0000 0.6757
2.0690 1.0000 0.6757
2.1034 1.0000 0.6757
2.1379 1.0000 0.6757
2.1724 1.0000 0.6757
2.2069 1.0000 0.6757
2.2414 1.0000 0.6757
2.2759 1.0000 0.6757
2.3103 1.0000 0.6757
2.3448 1.0000 0.6757
2.3793 1.0000 0.6757
2.4138 1.0000 0.6757
2.4483 1.0000 0.6757
2.4828 1.0000 0.6757
2.5172 1.0000 0.6757
2.5517 1.0000 0.6757
2.5862 1.0000 0.6757
2.6207 1.0000 0.6757
2.6552 1.0000 0.6757
2.6897 1.0000 0.6757
2.7241 1.0000 0.6757
2.7586 1.0000 0.6757
2.7931 1.0000 0.6757
2.8276 1.0000 0.6757
2.8621 1.0000 0.6757
2.8966 1.0000 0.6757
2.9310 1.0000 0.6757
2.9655 1.0000 0.6757
3.0000 1.0000 0.6757
2.0000 1.0000 0.7095
2.0345 1.0000 0.7095
2.0690 1.0000 0.7095
2.1034 1.0000 0.7095
2.1379 1.0000 0.7095
2.1724 1.0000 0.7095
2.2069 1.0000 0.7095
2.2414 1.0000 0.7095
2.2759 1.0000 0.7095
2.3103 1.0000 0.7095
2.3448 1.0000 0.7095
2.3793 1.0000 0.7095
2.4138 1.0000 0.7095
2.4483 1.0000 0.7095
2.4828 1.0000 0.7095
2.5172 1.0000 0.7095
2.5517 1.0000 0.7095
2.5862 1.0000 0.7095
2.6207 1.0000 0.7095
2.6552 1.0000 0.7095
2.6897 1.0000 0.7095
2.7241 1.0000 0.7095
2.7586 1.0000 0.7095
2.7931 1.0000 0.7095
2.8276 1.0000 0.7095
2.8621 1.0000 0.7095
2.8966 1.0000 0.7095
2.9310 1.0000 0.7095
2.9655 1.0000 0.7095
3.0000 1.0000 0.7095
2.0000 1.0000 0.7432
2.0345 1.0000 0.7432
2.0690 1.0000 0.7432
2.1034 1.0000 0.7432
2.1379 1.0000 0.7432
2.1724 1.0000 0.7432
2.2069 1.0000 0.7432
2.2414 1.0000 0.7432
2.2759 1.0000 0.7432
2.3103 1.0000 0.7432
2.3448 1.0000 0.7432
2.3793 1.0000 0.7432
2.4138 1.0000 0.7432
2.4483 1.0000 0.7432
2.4828 1.0000 0.7432
2.5172 1.0000 0.7432
2.5517 1.0000 0.7432
2.5862 1.0000 0.7432
2.6207 1.0000 0.7432
2.6552 1.0000 0.7432
2.6897 1.0000 0.7432
2.7241 1.0000 0.7432
2.7586 1.0000 0.7432
2.7931 1.0000 0.7432
2.8276 1.0000 0.7432
2.8621 1.0000 0.7432
2.8966 1.0000 0.7432
2.9310 1.0000 0.7432
2.9655 1.0000 0.7432
3.0000 1.0000 0.7432
2.0000 1.0000 0.7770
2.0345 1.0000 0.7770
2.0690 1.0000 0.7770
2.1034 1.0000 0.7770
2.1379 1.0000 0.7770
2.1724 1.0000 0.7770
2.2069 1.0000 0.7770
2.2414 1.0000 0.7770
2.2759 1.0000 0.7770
2.3103 1.0000 0.7770
2.3448 1.0000 0.7770
2.3793 1.0000 0.7770
2.4138 1.0000 0.7770
2.4483 1.0000 0.7770
2.4828 1.0000 0.7770
2.5172 1.0000 0.7770
2.5517 1.0000 0.7770
2.5862 1.0000 0.7770
2.6207 1.0000 0.7770
2.6552 1.0000 0.7770
2.6897 1.0000 0.7770
2.7241 1.0000 0.7770
2.7586 1.0000 0.7770
2.7931 1.0000 0.7770
2.8276 1.0000 0.7770
2.8621 1.0000 0.7770
2.8966 1.0000 0.7770
2.9310 1.0000 0.7770
2.9655 1.0000 0.7770
3.0000 1.0000 0.7770
2.0000 1.0000 0.8108
2.0345 1.0000 0.8108
2.0690 1.0000 0.8108
2.1034 1.0000 0.8108
2.1379 1.0000 0.8108
2.1724 1.0000 0.8108
2.2069 1.0000 0.8108
2.2414 1.0000 0.8108
2.2759 1.0000 0.8108
2.3103 1.0000 0.8108
2.3448 1.0000 0.8108
2.3793 1.0000 0.8108
2.4138 1.0000 0.8108
2.4483 1.0000 0.8108
2.4828 1.0000 0.8108
2.5172 1.0000 0.8108
2.5517 1.0000 0.8108
2.5862 1.0000 0.8108
2.6207 1.0000 0.8108
2.6552 1.0000 0.8108
2.6897 1.0000 0.8108
2.7241 1.0000 0.8108
2.7586 1.0000 0.8108
2.7931 1.0000 0.8108
2.8276 1.0000 0.8108
2.8621 1.0000 0.8108
2.8966 1.0000 0.8108
2.9310 1.0000 0.8108
2.9655 1.0000 0.8108
3.0000 1.0000 0.8108
2.0000 1.0000 0.8446
2.0345 1.0000 0.8446
2.0690 1.0000 0.8446
2.1034 1.0000 0.8446
2.1379 1.0000 0.8446
2.1724 1.0000 0.8446
2.2069 1.0000 0.8446
2.2414 1.0000 0.8446
2.2759 1.0000 0.8446
2.3103 1.0000 0.8446
2.3448 1.0000 0.8446
2.3793 1.0000 0.8446
2.4138 1.0000 0.8446
2.4483 1.0000 0.8446
2.4828 1.0000 0.8446
2.5172 1.0000 0.8446
2.5517 1.0000 0.8446
2.5862 1.0000 0.8446
2.6207 1.0000 0.8446
2.6552 1.0000 0.8446
2.6897 1.0000 0.8446
2.7241 1.0000 0.8446
2.7586 1.0000 0.8446
2.7931 1.0000 0.8446
2.8276 1.0000 0.8446
2.8621 1.0000 0.8446
2.8966 1.0000 0.8446
2.9310 1.0000 0.8446
2.9655 1.0000 0.8446
3.0000 1.0000 0.8446
2.0000 1.0000 0.8784
2.0345 1.0000 0.8784
2.0690 1.0000 0.8784
2.1034 1.0000 0.8784
2.1379 1.0000 0.8784
2.1724 1.0000 0.8784
2.2069 1.0000 0.8784
2.2414 1.0000 0.8784
2.2759 1.0000 0.8784
2.3103 1.0000 0.8784
2.3448 1.0000 0.8784
2.3793 1.0000 0.8784
2.4138 1.0000 0.8784
2.4483 1.0000 0.8784
2.4828 1.0000 0.8784
2.5172 1.0000 0.8784
2.5517 1.0000 0.8784
2.5862 1.0000 0.8784
2.6207 1.0000 0.8784
2.6552 1.0000 0.8784
2.6897 1.0000 0.8784
2.7241 1.0000 0.8784
2.7586 1.0000 0.8784
2.7931 1.0000 0.8784
2.8276 1.0000 0.8784
2.8621 1.0000 0.8784
2.8966 1.0000 0.8784
2.9310 1.0000 0.8784
2.9655 1.0000 0.8784
3.0000 1.0000 0.8784
2.0000 1.0000 0.9122
2.0345 1.0000 0.9122
2.0690 1.0000 0.9122
2.1034 1.0000 0.9122
2.1379 1.0000 0.9122
2.1724 1.0000 0.9122
2.2069 1.0000 0.9122
2.2414 1.0000 0.9122
2.2759 1.0000 0.9122
2.3103 1.0000 0.9122
2.3448 1.0000 0.9122
2.3793 1.0000 0.9122
2.4138 1.0000 0.9122
2.4483 1.0000 0.9122
2.4828 1.0000 0.9122
2.5172 1.0000 0.9122
2.5517 1.0000 0.9122
2.5862 1.0000 0.9122
2.6207 1.0000 0.9122
2.6552 1.0000 0.9122
2.6897 1.0000 0.9122
2.7241 1.0000 0.9122
2.7586 1.0000 0.9122
2.7931 1.0000 0.9122
2.8276 1.0000 0.9122
2.8621 1.0000 0.9122
2.8966 1.0000 0.9122
2.9310 1.0000 0.9122
2.9655 1.0000 0.9122
3.0000 1.0000 0.9122
2.0000 1.0000 0.9459
2.0345 1.0000 0.9459
2.0690 1.0000 0.9459
2.1034 1.0000 0.9459
2.1379 1.0000 0.9459
2.1724 1.0000 0.9459
2.2069 1.0000 0.9459
2.2414 1.0000 0.9459
2.2759 1.0000 0.9459
2.3103 1.0000 0.9459
2.3448 1.0000 0.9459
2.3793 1.0000 0.9459
2.4138 1.0000 0.9459
2.4483 1.0000 0.9459
2.4828 1.0000 0.9459
2.5172 1.0000 0.9459
2.5517 1.0000 0.9459
2.5862 1.0000 0.9459
2.6207 1.0000 0.9459
2.6552 1.0000 0.9459
2.6897 1.0000 0.9459
2.7241 1.0000 0.9459
2.7586 1.0000 0.9459
2.7931 1.0000 0.9459
2.8276 1.0000 0.9459
2.8621 1.0000 0.9459
2.8966 1.0000 0.9459
2.9310 1.0000 0.9459
2.9655 1.0000 0.9459
3.0000 1.0000 0.9459
2.0000 1.0000 0.9797
2.0345 1.0000 0.9797
2.0690 1.0000 0.9797
2.1034 1.0000 0.9797
2.1379 1.0000 0.9797
2.1724 1.0000 0.9797
2.2069 1.0000 0.9797
2.2414 1.0000 0.9797
2.2759 1.0000 0.9797
2.3103 1.0000 0.9797
2.3448 1.0000 0.9797
2.3793 1.0000 0.9797
2.4138 1.0000 0.9797
2.4483 1.0000 0.9797
2.4828 1.0000 0.9797
2.5172 1.0000 0.9797
2.5517 1.0000 0.9797
2.5862 1.0000 0.9797
2.6207 1.0000 0.9797
2.6552 1.0000 0.9797
2.6897 1.0000 0.9797
2.7241 1.0000 0.9797
2.7586 1.0000 0.9797
2.7931 1.0000 0.9797
2.8276 1.0000 0.9797
2.8621 1.0000 0.9797
2.8966 1.0000 0.9797
2.9310 1.0000 0.9797
2.9655 1.0000 0.9797
3.0000 1.0000 0.9797
2.0000 1.0000 1.0135
2.0345 1.0000 1.0135
2.0690 1.0000 1.0135
2.1034 1.0000 1.0135
2.1379 1.0000 1.0135
2.1724 1.0000 1.0135
2.2069 1.0000 1.0135
2.2414 1.0000 1.0135
2.2759 1.0000 1.0135
2.3103 1.0000 1.0135
2.3448 1.0000 1.0135
2.3793 1.0000 1.0135
2.4138 1.0000 1.0135
2.4483 1.0000 1.0135
2.4828 1.0000 1.0135
2.5172 1.0000 1.0135
2.5517 1.0000 1.0135
2.5862 1.0000 1.0135
2.6207 1.0000 1.0135
2.6552 1.0000 1.0135
2.6897 1.0000 1.0135
2.7241 1.0000 1.0135
2.7586 1.0000 1.0135
2.7931 1.0000 1.0135
2.8276 1.0000 1.0135
2.8621 1.0000 1.0135
2.8966 1.0000 1.0135
2.9310 1.0000 1.0135
2.9655 1.0000 1.0135
3.0000 1.0000 1.0135
2.0000 1.0000 1.0473
2.0345 1.0000 1.0473
2.0690 1.0000 1.0473
2.1034 1.0000 1.0473
2.1379 1.0000 1.0473
2.1724 1.0000 1.0473
2.2069 1.0000 1.0473
2.2414 1.0000 1.0473
2.2759 1.0000 1.0473
2.3103 1.0000 1.0473
2.3448 1.0000 1.0473
2.3793 1.0000 1.0473
2.4138 1.0000 1.0473
2.4483 1.0000 1.0473
2.4828 1.0000 1.0473
2.5172 1.0000 1.0473
2.5517 1.0000 1.0473
2.5862 1.0000 1.0473
2.6207 1.0000 1.0473
2.6552 1.0000 1.0473
2.6897 1.0000 1.0473
2.7241 1.0000 1.0473
2.7586 1.0000 1.0473
2.7931 1.0000 1.0473
2.8276 1.0000 1.0473
2.8621 1.0000 1.0473
2.8966 1.0000 1.0473
2.9310 1.0000 1.0473
2.9655 1.0000 1.0473
3.0000 1.0000 1.0473
2.0000 1.0000 1.0811
2.0345 1.0000 1.0811
2.0690 1.0000 1.0811
2.1034 1.0000 1.0811
2.1379 1.0000 1.0811
2.1724 1.0000 1.0811
2.2069 1.0000 1.0811
2.2414 1.0000 1.0811
2.2759 1.0000 1.0811
2.3103 1.0000 1.0811
2.3448 1.0000 1.0811
2.3793 1.0000 1.0811
2.4138 1.0000 1.0811
2.4483 1.0000 1.0811
2.4828 1.0000 1.0811
2.5172 1.0000 1.0811
2.5517 1.0000 1.0811
2.5862 1.0000 1.0811
2.6207 1.0000 1.0811
2.6552 1.0000 1.0811
2.6897 1.0000 1.0811
2.7241 1.0000 1.0811
2.7586 1.0000 1.0811
2.7931 1.0000 1.0811
2.8276 1.0000 1.0811
2.8621 1.0000 1.0811
2.8966 1.0000 1.0811
2.9310 1.0000 1.0811
2.9655 1.0000 1.0811
3.0000 1.0000 1.0811
2.0000 1.0000 1.1149
2.0345 1.0000 1.1149
2.0690 1.0000 1.1149
2.1034 1.0000 1.1149
2.1379 1.0000 1.1149
2.1724 1.0000 1.1149
2.2069 1.0000 1.1149
2.2414 1.0000 1.1149
2.2759 1.0000 1.1149
2.3103 1.0000 1.1149
2.3448 1.0000 1.1149
2.3793 1.0000 1.1149
2.4138 1.0000 1.1149
2.4483 1.0000 1.1149
2.4828 1.0000 1.1149
2.5172 1.0000 1.1149
2.5517 1.0000 1.1149
2.5862 1.0000 1.1149
2.6207 1.0000 1.1149
2.6552 1.0000 1.1149
2.6897 1.0000 1.1149
2.7241 1.0000 1.1149
2.7586 1.0000 1.1149
2.7931 1.0000 1.1149
2.8276 1.0000 1.1149
2.8621 1.0000 1.1149
2.8966 1.0000 1.1149
2.9310 1.0000 1.1149
2.9655 1.0000 1.1149
3.0000 1.0000 1.1149
2.0000 1.0000 1.1486
2.0345 1.0000 1.1486
2.0690 1.0000 1.1486
2.1034 1.0000 1.1486
2.1379 1.0000 1.1486
2.1724 1.0000 1.1486
2.2069 1.0000 1.1486
2.2414 1.0000 1.1486
2.2759 1.0000 1.1486
2.3103 1.0000 1.1486
2.3448 1.0000 1.1486
2.3793 1.0000 1.1486
2.4138 1.0000 1.1486
2.4483 1.0000 1.1486
2.4828 1.0000 1.1486
2.5172 1.0000 1.1486
2.5517 1.0000 1.1486
2.5862 1.0000 1.1486
2.6207 1.0000 1.1486
2.6552 1.0000 1.1486
2.6897 1.0000 1.1486
2.7241 1.0000 1.1486
2.7586 1.0000 1.1486
2.7931 1.0000 1.1486
2.8276 1.0000 1.1486
2.8621 1.0000 1.1486
2.8966 1.0000 1.1486
2.9310 1.0000 1.1486
2.9655 1.0000 1.1486
3.0000 1.0000 1.1486
2.0000 1.0000 1.1824
2.0345 1.0000 1.1824
2.0690 1.0000 1.1824
2.1034 1.0000 1.1824
2.1379 1.0000 1.1824
2.1724 1.0000 1.1824
2.2069 1.0000 1.1824
2.2414 1.0000 1.1824
2.2759 1.0000 1.1824
2.3103 1.0000 1.1824
2.3448 1.0000 1.1824
2.3793 1.0000 1.1824
2.4138 1.0000 1.1824
2.4483 1.0000 1.1824
2.4828 1.0000 1.1824
2.5172 1.0000 1.1824
2.5517 1.0000 1.1824
2.5862 1.0000 1.1824
2.6207 1.0000 1.1824
2.6552 1.0000 1.1824
2.6897 1.0000 1.1824
2.7241 1.0000 1.1824
2.7586 1.0000 1.1824
2.7931 1.0000 1.1824
2.8276 1.0000 1.1824
2.8621 1.0000 1.1824
2.8966 1.0000 1.1824
2.9310 1.0000 1.1824
2.9655 1.0000 1.1824
3.0000 1.0000 1.1824
2.0000 1.0000 1.2162
2.0345 1.0000 1.2162
2.0690 1.0000 1.2162
2.1034 1.0000 1.2162
2.1379 1.0000 1.2162
2.1724 1.0000 1.2162
2.2069 1.0000 1.2162
2.2414 1.0000 1.2162
2.2759 1.0000 1.2162
2.3103 1.0000 1.2162
2.3448 1.0000 1.2162
2.3793 1.0000 1.2162
2.4138 1.0000 1.2162
2.4483 1.0000 1.2162
2.4828 1.0000 1.2162
2.5172 1.0000 1.2162
2.5517 1.0000 1.2162
2.5862 1.0000 1.2162
2.6207 1.0000 1.2162
2.6552 1.0000 1.2162
2.6897 1.0000 1.2162
2.7241 1.0000 1.2162
2.7586 1.0000 1.2162
2.7931 1.0000 1.2162
2.8276 1.0000 1.2162
2.8621 1.0000 1.2162
2.8966 1.0000 1.2162
2.9310 1.0000 1.2162
2.9655 1.0000 1.2162
3.0000 1.0000 1.2162
2.0000 1.0000 1.2500
2.0345 1.0000 1.2500
2.0690 1.0000 1.2500
2.1034 1.0000 1.2500
2.1379 1.0000 1.2500
2.1724 1.0000 1.2500
2.2069 1.0000 1.2500
2.2414 1.0000 1.2500
2.2759 1.0000 1.2500
2.3103 1.0000 1.2500
2.3448 1.0000 1.2500
2.3793 1.0000 1.2500
2.4138 1.0000 1.2500
2.4483 1.0000 1.2500
2.4828 1.0000 1.2500
2.5172 1.0000 1.2500
2.5517 1.0000 1.2500
2.5862 1.0000 1.2500
2.6207 1.0000 1.2500
2.6552 1.0000 1.2500
2.6897 1.0000 1.2500
2.7241 1.0000 1.2500
2.7586 1.0000 1.2500
2.7931 1.0000 1.2500
2.8276 1.0000 1.2500
2.8621 1.0000 1.2500
2.8966 1.0000 1.2500
2.9310 1.0000 1.2500
2.9655 1.0000 1.2500
3.0000 1.0000 1.2500
2.0000 1.0000 1.2838
2.0345 1.0000 1.2838
2.0690 1.0000 1.2838
2.1034 1.0000 1.2838
2.1379 1.0000 1.2838
2.1724 1.0000 1.2838
2.2069 1.0000 1.2838
2.2414 1.0000 1.2838
2.2759 1.0000 1.2838
2.3103 1.0000 1.2838
2.3448 1.0000 1.2838
2.3793 1.0000 1.2838
2.4138 1.0000 1.2838
2.4483 1.0000 1.2838
2.4828 1.0000 1.2838
2.5172 1.0000 1.2838
2.5517 1.0000 1.2838
2.5862 1.0000 1.2838
2.6207 1.0000 1.2838
2.6552 1.0000 1.2838
2.6897 1.0000 1.2838
2.7241 1.0000 1.2838
2.7586 1.0000 1.2838
2.7931 1.0000 1.2838
2.8276 1.0000 1.2838
2.8621 1.0000 1.2838
2.8966 1.0000 1.2838
2.9310 1.0000 1.2838
2.9655 1.0000 1.2838
3.0000 1.0000 1.2838
2.0000 1.0000 1.3176
2.0345 1.0000 1.3176
2.0690 1.0000 1.3176
2.1034 1.0000 1.3176
2.1379 1.0000 1.3176
2.1724 1.0000 1.3176
2.2069 1.0000 1.3176
2.2414 1.0000 1.3176
2.2759 1.0000 1.3176
2.3103 1.0000 1.3176
2.3448 1.0000 1.3176
2.3793 1.0000 1.3176
2.4138 1.0000 1.3176
2.4483 1.0000 1.3176
2.4828 1.0000 1.3176
2.5172 1.0000 1.3176
2.5517 1.0000 1.3176
2.5862 1.0000 1.3176
2.6207 1.0000 1.3176
2.6552 1.0000 1.3176
2.6897 1.0000 1.3176
2.7241 1.0000 1.3176
2.7586 1.0000 1.3176
2.7931 1.0000 1.3176
2.8276 1.0000 1.3176
2.8621 1.0000 1.3176
2.8966 1.0000 1.3176
2.9310 1.0000 1.3176
2.9655 1.0000 1.3176
3.0000 1.0000 1.3176
2.0000 1.0000 1.3514
2.0345 1.0000 1.3514
2.0690 1.0000 1.3514
2.1034 1.0000 1.3514
2.1379 1.0000 1.3514
2.1724 1.0000 1.3514
2.2069 1.0000 1.3514
2.2414 1.0000 1.3514
2.2759 1.0000 1.3514
2.3103 1.0000 1.3514
2.3448 1.0000 1.3514
2.3793 1.0000 1.3514
2.4138 1.0000 1.3514
2.4483 1.0000 1.3514
2.4828 1.0000 1.3514
2.5172 1.0000 1.3514
2.5517 1.0000 1.3514
2.5862 1.0000 1.3514
2.6207 1.0000 1.3514
2.6552 1.0000 1.3514
2.6897 1.0000 1.3514
2.7241 1.0000 1.3514
2.7586 1.0000 1.3514
2.7931 1.0000 1.3514
2.8276 1.0000 1.3514
2.8621 1.0000 1.3514
2.8966 1.0000 1.3514
2.9310 1.0000 1.3514
2.9655 1.0000 1.3514
3.0000 1.0000 1.3514
2.0000 1.0000 1.3851
2.0345 1.0000 1.3851
2.0690 1.0000 1.3851
2.1034 1.0000 1.3851
2.1379 1.0000 1.3851
2.1724 1.0000 1.3851
2.2069 1.0000 1.3851
2.2414 1.0000 1.3851
2.2759 1.0000 1.3851
2.3103 1.0000 1.3851
2.3448 1.0000 1.3851
2.3793 1.0000 1.3851
2.4138 1.0000 1.3851
2.4483 1.0000 1.3851
2.4828 1.0000 1.3851
2.5172 1.0000 1.3851
2.5517 1.0000 1.3851
2.5862 1.0000 1.3851
2.6207 1.0000 1.3851
2.6552 1.0000 1.3851
2.6897 1.0000 1.3851
2.7241 1.0000 1.3851
2.7586 1.0000 1.3851
2.7931 1.0000 1.3851
2.8276 1.0000 1.3851
2.8621 1.0000 1.3851
2.8966 1.0000 1.3851
2.9310 1.0000 1.3851
2.9655 1.0000 1.3851
3.0000 1.0000 1.3851
2.0000 1.0000 1.4189
2.0345 1.0000 1.4189
2.0690 1.0000 1.4189
2.1034 1.0000 1.4189
2.1379 1.0000 1.4189
2.1724 1.0000 1.4189
2.2069 1.0000 1.4189
2.2414 1.0000 1.4189
2.2759 1.0000 1.4189
2.3103 1.0000 1.4189
2.3448 1.0000 1.4189
2.3793 1.0000 1.4189
2.4138 1.0000 1.4189
2.4483 1.0000 1.4189
2.4828 1.0000 1.4189
2.5172 1.0000 1.4189
2.5517 1.0000 1.4189
2.5862 1.0000 1.4189
2.6207 1.0000 1.4189
2.6552 1.0000 1.4189
2.6897 1.0000 1.4189
2.7241 1.0000 1.4189
2.7586 1.0000 1.4189
2.7931 1.0000 1.4189
2.8276 1.0000 1.4189
2.8621 1.0000 1.4189
2.8966 1.0000 1.4189
2.9310 1.0000 1.4189
2.9655 1.0000 1.4189
3.0000 1.0000 1.4189
2.0000 1.0000 1.4527
2.0345 1.0000 1.4527
2.0690 1.0000 1.4527
2.1034 1.0000 1.4527
2.1379 1.0000 1.4527
2.1724 1.0000 1.4527
2.2069 1.0000 1.4527
2.2414 1.0000 1.4527
2.2759 1.0000 1.4527
2.3103 1.0000 1.4527
2.3448 1.0000 1.4527
2.3793 1.0000 1.4527
2.4138 1.0000 1.4527
2.4483 1.0000 1.4527
2.4828 1.0000 1.4527
2.5172 1.0000 1.4527
2.5517 1.0000 1.4527
2.5862 1.0000 1.4527
2.6207 1.0000 1.4527
2.6552 1.0000 1.4527
2.6897 1.0000 1.4527
2.7241 1.0000 1.4527
2.7586 1.0000 1.4527
2.7931 1.0000 1.4527
2.8276 1.0000 1.4527
2.8621 1.0000 1.4527
2.8966 1.0000 1.4527
2.9310 1.0000 1.4527
2.9655 1.0000 1.4527
3.0000 1.0000 1.4527
2.0000 1.0000 1.4865
2.0345 1.0000 1.4865
2.0690 1.0000 1.4865
2.1034 1.0000 1.4865
2.1379 1.0000 1.4865
2.1724 1.0000 1.4865
2.2069 1.0000 1.4865
2.2414 1.0000 1.4865
2.2759 1.0000 1.4865
2.3103 1.0000 1.4865
2.3448 1.0000 1.4865
2.3793 1.0000 1.4865
2.4138 1.0000 1.4865
2.4483 1.0000 1.4865
2.4828 1.0000 1.4865
2.5172 1.0000 1.4865
2.5517 1.0000 1.4865
2.5862 1.0000 1.4865
2.6207 1.0000 1.4865
2.6552 1.0000 1.4865
2.6897 1.0000 1.4865
2.7241 1.0000 1.4865
2.7586 1.0000 1.4865
2.7931 1.0000 1.4865
2.8276 1.0000 1.4865
2.8621 1.0000 1.4865
2.8966 1.0000 1.4865
2.9310 1.0000 1.4865
2.9655 1.0000 1.4865
3.0000 1.0000 1.4865
2.0000 1.0000 1.5203
2.0345 1.0000 1.5203
2.0690 1.0000 1.5203
2.1034 1.0000 1.5203
2.1379 1.0000 1.5203
2.1724 1.0000 1.5203
2.2069 1.0000 1.5203
2.2414 1.0000 1.5203
2.2759 1.0000 1.5203
2.3103 1.0000 1.5203
2.3448 1.0000 1.5203
2.3793 1.0000 1.5203
2.4138 1.0000 1.5203
2.4483 1.0000 1.5203
2.4828 1.0000 1.5203
2.5172 1.0000 1.5203
2.5517 1.0000 1.5203
2.5862 1.0000 1.5203
2.6207 1.0000 1.5203
2.6552 1.0000 1.5203
2.6897 1.0000 1.5203
2.7241 1.0000 1.5203
2.7586 1.0000 1.5203
2.7931 1.0000 1.5203
2.8276 1.0000 1.5203
2.8621 1.0000 1.5203
2.8966 1.0000 1.5203
2.9310 1.0000 1.5203
2.9655 1.0000 1.5203
3.0000 1.0000 1.5203
2.0000 1.0000 1.5541
2.0345 1.0000 1.5541
2.0690 1.0000 1.5541
2.1034 1.0000 1.5541
2.1379 1.0000 1.5541
2.1724 1.0000 1.5541
2.2069 1.0000 1.5541
2.2414 1.0000 1.5541
2.2759 1.0000 1.5541
2.3103 1.0000 1.5541
2.3448 1.0000 1.5541
2.3793 1.0000 1.5541
2.4138 1.0000 1.5541
2.4483 1.0000 1.5541
2.4828 1.0000 1.5541
2.5172 1.0000 1.5541
2.5517 1.0000 1.5541
2.5862 1.0000 1.5541
2.6207 1.0000 1.5541
2.6552 1.0000 1.5541
2.6897 1.0000 1.5541
2.7241 1.0000 1.5541
2.7586 1.0000 1.5541
2.7931 1.0000 1.5541
2.8276 1.0000 1.5541
2.8621 1.0000 1.5541
2.8966 1.0000 1.5541
2.9310 1.0000 1.5541
2.9655 1.0000 1.5541
3.0000 1.0000 1.5541
2.0000 1.0000 1.5878
2.0345 1.0000 1.5878
2.0690 1.0000 1.5878
2.1034 1.0000 1.5878
2.1379 1.0000 1.5878
2.1724 1.0000 1.5878
2.2069 1.0000 1.5878
2.2414 1.0000 1.5878
2.2759 1.0000 1.5878
2.3103 1.0000 1.5878
2.3448 1.0000 1.5878
2.3793 1.0000 1.5878
2.4138 1.0000 1.5878
2.4483 1.0000 1.5878
2.4828 1.0000 1.5878
2.5172 1.0000 1.5878
2.5517 1.0000 1.5878
2.5862 1.0000 1.5878
2.6207 1.0000 1.5878
2.6552 1.0000 1.5878
2.6897 1.0000 1.5878
2.7241 1.0000 1.5878
2.7586 1.0000 1.5878
2.7931 1.0000 1.5878
2.8276 1.0000 1.5878
2.8621 1.0000 1.5878
2.8966 1.0000 1.5878
2.9310 1.0000 1.5878
2.9655 1.0000 1.5878
3.0000 1.0000 1.5878
2.0000 1.0000 1.6216
2.0345 1.0000 1.6216
2.0690 1.0000 1.6216
2.1034 1.0000 1.6216
2.1379 1.0000 1.6216
2.1724 1.0000 1.6216
2.2069 1.0000 1.6216
2.2414 1.0000 1.6216
2.2759 1.0000 1.6216
2.3103 1.0000 1.6216
2.3448 1.0000 1.6216
2.3793 1.0000 1.6216
2.4138 1.0000 1.6216
2.4483 1.0000 1.6216
2.4828 1.0000 1.6216
2.5172 1.0000 1.6216
2.5517 1.0000 1.6216
2.5862 1.0000 1.6216
2.6207 1.0000 1.6216
2.6552 1.0000 1.6216
2.6897 1.0000 1.6216
2.7241 1.0000 1.6216
2.7586 1.0000 1.6216
2.7931 1.0000 1.6216
2.8276 1.0000 1.6216
2.8621 1.0000 1.6216
2.8966 1.0000 1.6216
2.9310 1.0000 1.6216
2.9655 1.0000 1.6216
3.0000 1.0000 1.6216
2.0000 1.0000 1.6554
2.0345 1.0000 1.6554
2.0690 1.0000 1.6554
2.1034 1.0000 1.6554
2.1379 1.0000 1.6554
2.1724 1.0000 1.6554
2.2069 1.0000 1.6554
2.2414 1.0000 1.6554
2.2759 1.0000 1.6554
2.3103 1.0000 1.6554
2.3448 1.0000 1.6554
2.3793 1.0000 1.6554
2.4138 1.0000 1.6554
2.4483 1.0000 1.6554
2.4828 1.0000 1.6554
2.5172 1.0000 1.6554
2.5517 1.0000 1.6554
2.5862 1.0000 1.6554
2.6207 1.0000 1.6554
2.6552 1.0000 1.6554
2.6897 1.0000 1.6554
2.7241 1.0000 1.6554
2.7586 1.0000 1.6554
2.7931 1.0000 1.6554
2.8276 1.0000 1.6554
2.8621 1.0000 1.6554
2.8966 1.0000 1.6554
2.9310 1.0000 1.6554
2.9655 1.0000 1.6554
3.0000 1.0000 1.6554
2.0000 1.0000 1.6892
2.0345 1.0000 1.6892
2.0690 1.0000 1.6892
2.1034 1.0000 1.6892
2.1379 1.0000 1.6892
2.1724 1.0000 1.6892
2.2069 1.0000 1.6892
2.2414 1.0000 1.6892
2.2759 1.0000 1.6892
2.3103 1.0000 1.6892
2.3448 1.0000 1.6892
2.3793 1.0000 1.6892
2.4138 1.0000 1.6892
2.4483 1.0000 1.6892
2.4828 1.0000 1.6892
2.5172 1.0000 1.6892
2.5517 1.0000 1.6892
2.5862 1.0000 1.6892
2.6207 1.0000 1.6892
2.6552 1.0000 1.6892
2.6897 1.0000 1.6892
2.7241 1.0000 1.6892
2.7586 1.0000 1.6892
2.7931 1.0000 1.6892
2.8276 1.0000 1.6892
2.8621 1.0000 1.6892
2.8966 1.0000 1.6892
2.9310 1.0000 1.6892
2.9655 1.0000 1.6892
3.0000 1.0000 1.6892
2.0000 1.0000 1.7230
2.0345 1.0000 1.7230
2.0690 1.0000 1.7230
2.1034 1.0000 1.7230
2.1379 1.0000 1.7230
2.1724 1.0000 1.7230
2.2069 1.0000 1.7230
2.2414 1.0000 1.7230
2.2759 1.0000 1.7230
2.3103 1.0000 1.7230
2.3448 1.0000 1.7230
2.3793 1.0000 1.7230
2.4138 1.0000 1.7230
2.4483 1.0000 1.7230
2.4828 1.0000 1.7230
2.5172 1.0000 1.7230
2.5517 1.0000 1.7230
2.5862 1.0000 1.7230
2.6207 1.0000 1.7230
2.6552 1.0000 1.7230
2.6897 1.0000 1.7230
2.7241 1.0000 1.7230
2.7586 1.0000 1.7230
2.7931 1.0000 1.7230
2.8276 1.0000 1.7230
2.8621 1.0000 1.7230
2.8966 1.0000 1.7230
2.9310 1.0000 1.7230
2.9655 1.0000 1.7230
3.0000 1.0000 1.7230
2.0000 1.0000 1.7568
2.0345 1.0000 1.7568
2.0690 1.0000 1.7568
2.1034 1.0000 1.7568
2.1379 1.0000 1.7568
2.1724 1.0000 1.7568
2.2069 1.0000 1.7568
2.2414 1.0000 1.7568
2.2759 1.0000 1.7568
2.3103 1.0000 1.7568
2.3448 1.0000 1.7568
2.3793 1.0000 1.7568
2.4138 1.0000 1.7568
2.4483 1.0000 1.7568
2.4828 1.0000 1.7568
2.5172 1.0000 1.7568
2.5517 1.0000 1.7568
2.5862 1.0000 1.7568
2.6207 1.0000 1.7568
2.6552 1.0000 1.7568
2.6897 1.0000 1.7568
2.7241 1.0000 1.7568
2.7586 1.0000 1.7568
2.7931 1.0000 1.7568
2.8276 1.0000 1.7568
2.8621 1.0000 1.7568
2.8966 1.0000 1.7568
2.9310 1.0000 1.7568
2.9655 1.0000 1.7568
3.0000 1.0000 1.7568
2.0000 1.0000 1.7905
2.0345 1.0000 1.7905
2.0690 1.0000 1.7905
2.1034 1.0000 1.7905
2.1379 1.0000 1.7905
2.1724 1.0000 1.7905
2.2069 1.0000 1.7905
2.2414 1.0000 1.7905
2.2759 1.0000 1.7905
2.3103 1.0000 1.7905
2.3448 1.0000 1.7905
2.3793 1.0000 1.7905
2.4138 1.0000 1.7905
2.4483 1.0000 1.7905
2.4828 1.0000 1.7905
2.5172 1.0000 1.7905
2.5517 1.0000 1.7905
2.5862 1.0000 1.7905
2.6207 1.0000 1.7905
2.6552 1.0000 1.7905
2.6897 1.0000 1.7905
2.7241 1.0000 1.7905
2.7586 1.0000 1.7905
2.7931 1.0000 1.7905
2.8276 1.0000 1.7905
2.8621 1.0000 1.7905
2.8966 1.0000 1.7905
2.9310 1.0000 1.7905
2.9655 1.0000 1.7905
3.0000 1.0000 1.7905
2.0000 1.0000 1.8243
2.0345 1.0000 1.8243
2.0690 1.0000 1.8243
2.1034 1.0000 1.8243
2.1379 1.0000 1.8243
2.1724 1.0000 1.8243
2.2069 1.0000 1.8243
2.2414 1.0000 1.8243
2.2759 1.0000 1.8243
2.3103 1.0000 1.8243
2.3448 1.0000 1.8243
2.3793 1.0000 1.8243
2.4138 1.0000 1.8243
2.4483 1.0000 1.8243
2.4828 1.0000 1.8243
2.5172 1.0000 1.8243
2.5517 1.0000 1.8243
2.5862 1.0000 1.8243
2.6207 1.0000 1.8243
2.6552 1.0000 1.8243
2.6897 1.0000 1.8243
2.7241 1.0000 1.8243
2.7586 1.0000 1.8243
2.7931 1.0000 1.8243
2.8276 1.0000 1.8243
2.8621 1.0000 1.8243
2.8966 1.0000 1.8243
2.9310 1.0000 1.8243
2.9655 1.0000 1.8243
3.0000 1.0000 1.8243
2.0000 1.0000 1.8581
2.0345 1.0000 1.8581
2.0690 1.0000 1.8581
2.1034 1.0000 1.8581
2.1379 1.0000 1.8581
2.1724 1.0000 1.8581
2.2069 1.0000 1.8581
2.2414 1.0000 1.8581
2.2759 1.0000 1.8581
2.3103 1.0000 1.8581
2.3448 1.0000 1.8581
2.3793 1.0000 1.8581
2.4138 1.0000 1.8581
2.4483 1.0000 1.8581
2.4828 1.0000 1.8581
2.5172 1.0000 1.8581
2.5517 1.0000 1.8581
2.5862 1.0000 1.8581
2.6207 1.0000 1.8581
2.6552 1.0000 1.8581
2.6897 1.0000 1.8581
2.7241 1.0000 1.8581
2.7586 1.0000 1.8581
2.7931 1.0000 1.8581
2.8276 1.0000 1.8581
2.8621 1.0000 1.8581
2.8966 1.0000 1.8581
2.9310 1.0000 1.8581
2.9655 1.0000 1.8581
3.0000 1.0000 1.8581
2.0000 1.0000 1.8919
2.0345 1.0000 1.8919
2.0690 1.0000 1.8919
2.1034 1.0000 1.8919
2.1379 1.0000 1.8919
2.1724 1.0000 1.8919
2.2069 1.0000 1.8919
2.2414 1.0000 1.8919
2.2759 1.0000 1.8919
2.3103 1.0000 1.8919
2.3448 1.0000 1.8919
2.3793 1.0000 1.8919
2.4138 1.0000 1.8919
2.4483 1.0000 1.8919
2.4828 1.0000 1.8919
2.5172 1.0000 1.8919
2.5517 1.0000 1.8919
2.5862 1.0000 1.8919
2.6207 1.0000 1.8919
2.6552 1.0000 1.8919
2.6897 1.0000 1.8919
2.7241 1.0000 1.8919
2.7586 1.0000 1.8919
2.7931 1.0000 1.8919
2.8276 1.0000 1.8919
2.8621 1.0000 1.8919
2.8966 1.0000 1.8919
2.9310 1.0000 1.8919
2.9655 1.0000 1.8919
3.0000 1.0000 1.8919
2.0000 1.0000 1.9257
2.0345 1.0000 1.9257
2.0690 1.0000 1.9257
2.1034 1.0000 1.9257
2.1379 1.0000 1.9257
2.1724 1.0000 1.9257
2.2069 1.0000 1.9257
2.2414 1.0000 1.9257
2.2759 1.0000 1.9257
2.3103 1.0000 1.9257
2.3448 1.0000 1.9257
2.3793 1.0000 1.9257
2.4138 1.0000 1.9257
2.4483 1.0000 1.9257
2.4828 1.0000 1.9257
2.5172 1.0000 1.9257
2.5517 1.0000 1.9257
2.5862 1.0000 1.9257
2.6207 1.0000 1.9257
2.6552 1.0000 1.9257
2.6897 1.0000 1.9257
2.7241 1.0000 1.9257
2.7586 1.0000 1.9257
2.7931 1.0000 1.9257
2.8276 1.0000 1.9257
2.8621 1.0000 1.9257
2.8966 1.0000 1.9257
2.9310 1.0000 1.9257
2.9655 1.0000 1.9257
3.0000 1.0000 1.9257
2.0000 1.0000 1.9595
2.0345 1.0000 1.9595
2.0690 1.0000 1.9595
2.1034 1.0000 1.9595
2.1379 1.0000 1.9595
2.1724 1.0000 1.9595
2.2069 1.0000 1.9595
2.2414 1.0000 1.9595
2.2759 1.0000 1.9595
2.3103 1.0000 1.9595
2.3448 1.0000 1.9595
2.3793 1.0000 1.9595
2.4138 1.0000 1.9595
2.4483 1.0000 1.9595
2.4828 1.0000 1.9595
2.5172 1.0000 1.9595
2.5517 1.0000 1.9595
2.5862 1.0000 1.9595
2.6207 1.0000 1.9595
2.6552 1.0000 1.9595
2.6897 1.0000 1.9595
2.7241 1.0000 1.9595
2.7586 1.0000 1.9595
2.7931 1.0000 1.9595
2.8276 1.0000 1.9595
2.8621 1.0000 1.9595
2.8966 1.0000 1.9595
2.9310 1.0000 1.9595
2.9655 1.0000 1.9595
3.0000 1.0000 1.9595
2.0000 1.0000 1.9932
2.0345 1.0000 1.9932
2.0690 1.0000 1.9932
2.1034 1.0000 1.9932
2.1379 1.0000 1.9932
2.1724 1.0000 1.9932
2.2069 1.0000 1.9932
2.2414 1.0000 1.9932
2.2759 1.0000 1.9932
2.3103 1.0000 1.9932
2.3448 1.0000 1.9932
2.3793 1.0000 1.9932
2.4138 1.0000 1.9932
2.4483 1.0000 1.9932
2.4828 1.0000 1.9932
2.5172 1.0000 1.9932
2.5517 1.0000 1.9932
2.5862 1.0000 1.9932
2.6207 1.0000 1.9932
2.6552 1.0000 1.9932
2.6897 1.0000 1.9932
2.7241 1.0000 1.9932
2.7586 1.0000 1.9932
2.7931 1.0000 1.9932
2.8276 1.0000 1.9932
2.8621 1.0000 1.9932
2.8966 1.0000 1.9932
2.9310 1.0000 1.9932
2.9655 1.0000 1.9932
3.0000 1.0000 1.9932
2.0000 1.0000 2.0270
2.0345 1.0000 2.0270
2.0690 1.0000 2.0270
2.1034 1.0000 2.0270
2.1379 1.0000 2.0270
2.1724 1.0000 2.0270
2.2069 1.0000 2.0270
2.2414 1.0000 2.0270
2.2759 1.0000 2.0270
2.3103 1.0000 2.0270
2.3448 1.0000 2.0270
2.3793 1.0000 2.0270
2.4138 1.0000 2.0270
2.4483 1.0000 2.0270
2.4828 1.0000 2.0270
2.5172 1.0000 2.0270
2.5517 1.0000 2.0270
2.5862 1.0000 2.0270
2.6207 1.0000 2.0270
2.6552 1.0000 2.0270
2.6897 1.0000 2.0270
2.7241 1.0000 2.0270
2.7586 1.0000 2.0270
2.7931 1.0000 2.0270
2.8276 1.0000 2.0270
2.8621 1.0000 2.0270
2.8966 1.0000 2.0270
2.9310 1.0000 2.0270
2.9655 1.0000 2.0270
3.0000 1.0000 2.0270
2.0000 1.0000 2.0608
2.0345 1.0000 2.0608
2.0690 1.0000 2.0608
2.1034 1.0000 2.0608
2.1379 1.0000 2.0608
2.1724 1.0000 2.0608
2.2069 1.0000 2.0608
2.2414 1.0000 2.0608
2.2759 1.0000 2.0608
2.3103 1.0000 2.0608
2.3448 1.0000 2.0608
2.3793 1.0000 2.0608
2.4138 1.0000 2.0608
2.4483 1.0000 2.0608
2.4828 1.0000 2.0608
2.5172 1.0000 2.0608
2.5517 1.0000 2.0608
2.5862 1.0000 2.0608
2.6207 1.0000 2.0608
2.6552 1.0000 2.0608
2.6897 1.0000 2.0608
2.7241 1.0000 2.0608
2.7586 1.0000 2.0608
2.7931 1.0000 2.0608
2.8276 1.0000 2.0608
2.8621 1.0000 2.0608
2.8966 1.0000 2.0608
2.9310 1.0000 2.0608
2.9655 1.0000 2.0608
3.0000 1.0000 2.0608
2.0000 1.0000 2.0946
2.0345 1.0000 2.0946
2.0690 1.0000 2.0946
2.1034 1.0000 2.0946
2.1379 1.0000 2.0946
2.1724 1.0000 2.0946
2.2069 1.0000 2.0946
2.2414 1.0000 2.0946
2.2759 1.0000 2.0946
2.3103 1.0000 2.0946
2.3448 1.0000 2.0946
2.3793 1.0000 2.0946
2.4138 1.0000 2.0946
2.4483 1.0000 2.0946
2.4828 1.0000 2.0946
2.5172 1.0000 2.0946
2.5517 1.0000 2.0946
2.5862 1.0000 2.0946
2.6207 1.0000 2.0946
2.6552 1.0000 2.0946
2.6897 1.0000 2.0946
2.7241 1.0000 2.0946
2.7586 1.0000 2.0946
2.7931 1.0000 2.0946
2.8276 1.0000 2.0946
2.8621 1.0000 2.0946
2.8966 1.0000 2.0946
2.9310 1.0000 2.0946
2.9655 1.0000 2.0946
3.0000 1.0000 2.0946
2.0000 1.0000 2.1284
2.0345 1.0000 2.1284
2.0690 1.0000 2.1284
2.1034 1.0000 2.1284
2.1379 1.0000 2.1284
2.1724 1.0000 2.1284
2.2069 1.0000 2.1284
2.2414 1.0000 2.1284
2.2759 1.0000 2.1284
2.3103 1.0000 2.1284
2.3448 1.0000 2.1284
2.3793 1.0000 2.1284
2.4138 1.0000 2.1284
2.4483 1.0000 2.1284
2.4828 1.0000 2.1284
2.5172 1.0000 2.1284
2.5517 1.0000 2.1284
2.5862 1.0000 2.1284
2.6207 1.0000 2.1284
2.6552 1.0000 2.1284
2.6897 1.0000 2.1284
2.7241 1.0000 2.1284
2.7586 1.0000 2.1284
2.7931 1.0000 2.1284
2.8276 1.0000 2.1284
2.8621 1.0000 2.1284
2.8966 1.0000 2.1284
2.9310 1.0000 2.1284
2.9655 1.0000 2.1284
3.0000 1.0000 2.1284
2.0000 1.0000 2.1622
2.0345 1.0000 2.1622
2.0690 1.0000 2.1622
2.1034 1.0000 2.1622
2.1379 1.0000 2.1622
2.1724 1.0000 2.1622
2.2069 1.0000 2.1622
2.2414 1.0000 2.1622
2.2759 1.0000 2.1622
2.3103 1.0000 2.1622
2.3448 1.0000 2.1622
2.3793 1.0000 2.1622
2.4138 1.0000 2.1622
2.4483 1.0000 2.1622
2.4828 1.0000 2.1622
2.5172 1.0000 2.1622
2.5517 1.0000 2.1622
2.5862 1.0000 2.1622
2.6207 1.0000 2.1622
2.6552 1.0000 2.1622
2.6897 1.0000 2.1622
2.7241 1.0000 2.1622
2.7586 1.0000 2.1622
2.7931 1.0000 2.1622
2.8276 1.0000 2.1622
2.8621 1.0000 2.1622
2.8966 1.0000 2.1622
2.9310 1.0000 2.1622
2.9655 1.0000 2.1622
3.0000 1.0000 2.1622
2.0000 1.0000 2.1959
2.0345 1.0000 2.1959
2.0690 1.0000 2.1959
2.1034 1.0000 2.1959
2.1379 1.0000 2.1959
2.1724 1.0000 2.1959
2.2069 1.0000 2.1959
2.2414 1.0000 2.1959
2.2759 1.0000 2.1959
2.3103 1.0000 2.1959
2.3448 1.0000 2.1959
2.3793 1.0000 2.1959
2.4138 1.0000 2.1959
2.4483 1.0000 2.1959
2.4828 1.0000 2.1959
2.5172 1.0000 2.1959
2.5517 1.0000 2.1959
2.5862 1.0000 2.1959
2.6207 1.0000 2.1959
2.6552 1.0000 2.1959
2.6897 1.0000 2.1959
2.7241 1.0000 2.1959
2.7586 1.0000 2.1959
2.7931 1.0000 2.1959
2.8276 1.0000 2.1959
2.8621 1.0000 2.1959
2.8966 1.0000 2.1959
2.9310 1.0000 2.1959
2.9655 1.0000 2.1959
3.0000 1.0000 2.1959
2.0000 1.0000 2.2297
2.0345 1.0000 2.2297
2.0690 1.0000 2.2297
2.1034 1.0000 2.2297
2.1379 1.0000 2.2297
2.1724 1.0000 2.2297
2.2069 1.0000 2.2297
2.2414 1.0000 2.2297
2.2759 1.0000 2.2297
2.3103 1.0000 2.2297
2.3448 1.0000 2.2297
2.3793 1.0000 2.2297
2.4138 1.0000 2.2297
2.4483 1.0000 2.2297
2.4828 1.0000 2.2297
2.5172 1.0000 2.2297
2.5517 1.0000 2.2297
2.5862 1.0000 2.2297
2.6207 1.0000 2.2297
2.6552 1.0000 2.2297
2.6897 1.0000 2.2297
2.7241 1.0000 2.2297
2.7586 1.0000 2.2297
2.7931 1.0000 2.2297
2.8276 1.0000 2.2297
2.8621 1.0000 2.2297
2.8966 1.0000 2.2297
2.9310 1.0000 2.2297
2.9655 1.0000 2.2297
3.0000 1.0000 2.2297
2.0000 1.0000 2.2635
2.0345 1.0000 2.2635
2.0690 1.0000 2.2635
2.1034 1.0000 2.2635
2.1379 1.0000 2.2635
2.1724 1.0000 2.2635
2.2069 1.0000 2.2635
2.2414 1.0000 2.2635
2.2759 1.0000 2.2635
2.3103 1.0000 2.2635
2.3448 1.0000 2.2635
2.3793 1.0000 2.2635
2.4138 1.0000 2.2635
2.4483 1.0000 2.2635
2.4828 1.0000 2.2635
2.5172 1.0000 2.2635
2.5517 1.0000 2.2635
2.5862 1.0000 2.2635
2.6207 1.0000 2.2635
2.6552 1.0000 2.2635
2.6897 1.0000 2.2635
2.7241 1.0000 2.2635
2.7586 1.0000 2.2635
2.7931 1.0000 2.2635
2.8276 1.0000 2.2635
2.8621 1.0000 2.2635
2.8966 1.0000 2.2635
2.9310 1.0000 2.2635
2.9655 1.0000 2.2635
3.0000 1.0000 2.2635
2.0000 1.0000 2.2973
2.0345 1.0000 2.2973
2.0690 1.0000 2.2973
2.1034 1.0000 2.2973
2.1379 1.0000 2.2973
2.1724 1.0000 2.2973
2.2069 1.0000 2.2973
2.2414 1.0000 2.2973
2.2759 1.0000 2.2973
2.3103 1.0000 2.2973
2.3448 1.0000 2.2973
2.3793 1.0000 2.2973
2.4138 1.0000 2.2973
2.4483 1.0000 2.2973
2.4828 1.0000 2.2973
2.5172 1.0000 2.2973
2.5517 1.0000 2.2973
2.5862 1.0000 2.2973
2.6207 1.0000 2.2973
2.6552 1.0000 2.2973
2.6897 1.0000 2.2973
2.7241 1.0000 2.2973
2.7586 1.0000 2.2973
2.7931 1.0000 2.2973
2.8276 1.0000 2.2973
2.8621 1.0000 2.2973
2.8966 1.0000 2.2973
2.9310 1.0000 2.2973
2.9655 1.0000 2.2973
3.0000 1.0000 2.2973
2.0000 1.0000 2.3311
2.0345 1.0000 2.3311
2.0690 1.0000 2.3311
2.1034 1.0000 2.3311
2.1379 1.0000 2.3311
2.1724 1.0000 2.3311
2.2069 1.0000 2.3311
2.2414 1.0000 2.3311
2.2759 1.0000 2.3311
2.3103 1.0000 2.3311
2.3448 1.0000 2.3311
2.3793 1.0000 2.3311
2.4138 1.0000 2.3311
2.4483 1.0000 2.3311
2.4828 1.0000 2.3311
2.5172 1.0000 2.3311
2.5517 1.0000 2.3311
2.5862 1.0000 2.3311
2.6207 1.0000 2.3311
2.6552 1.0000 2.3311
2.6897 1.0000 2.3311
2.7241 1.0000 2.3311
2.7586 1.0000 2.3311
2.7931 1.0000 2.3311
2.8276 1.0000 2.3311
2.8621 1.0000 2.3311
2.8966 1.0000 2.3311
2.9310 1.0000 2.3311
2.9655 1.0000 2.3311
3.0000 1.0000 2.3311
2.0000 1.0000 2.3649
2.0345 1.0000 2.3649
2.0690 1.0000 2.3649
2.1034 1.0000 2.3649
2.1379 1.0000 2.3649
2.1724 1.0000 2.3649
2.2069 1.0000 2.3649
2.2414 1.0000 2.3649
2.2759 1.0000 2.3649
2.3103 1.0000 2.3649
2.3448 1.0000 2.3649
2.3793 1.0000 2.3649
2.4138 1.0000 2.3649
2.4483 1.0000 2.3649
2.4828 1.0000 2.3649
2.5172 1.0000 2.3649
2.5517 1.0000 2.3649
2.5862 1.0000 2.3649
2.6207 1.0000 2.3649
2.6552 1.0000 2.3649
2.6897 1.0000 2.3649
2.7241 1.0000 2.3649
2.7586 1.0000 2.3649
2.7931 1.0000 2.3649
2.8276 1.0000 2.3649
2.8621 1.0000 2.3649
2.8966 1.0000 2.3649
2.9310 1.0000 2.3649
2.9655 1.0000 2.3649
3.0000 1.0000 2.3649
2.0000 1.0000 2.3986
2.0345 1.0000 2.3986
2.0690 1.0000 2.3986
2.1034 1.0000 2.3986
2.1379 1.0000 2.3986
2.1724 1.0000 2.3986
2.2069 1.0000 2.3986
2.2414 1.0000 2.3986
2.2759 1.0000 2.3986
2.3103 1.0000 2.3986
2.3448 1.0000 2.3986
2.3793 1.0000 2.3986
2.4138 1.0000 2.3986
2.4483 1.0000 2.3986
2.4828 1.0000 2.3986
2.5172 1.0000 2.3986
2.5517 1.0000 2.3986
2.5862 1.0000 2.3986
2.6207 1.0000 2.3986
2.6552 1.0000 2.3986
2.6897 1.0000 2.3986
2.7241 1.0000 2.3986
2.7586 1.0000 2.3986
2.7931 1.0000 2.3986
2.8276 1.0000 2.3986
2.8621 1.0000 2.3986
2.8966 1.0000 2.3986
2.9310 1.0000 2.3986
2.9655 1.0000 2.3986
3.0000 1.0000 2.3986
2.0000 1.0000 2.4324
2.0345 1.0000 2.4324
2.0690 1.0000 2.4324
2.1034 1.0000 2.4324
2.1379 1.0000 2.4324
2.1724 1.0000 2.4324
2.2069 1.0000 2.4324
2.2414 1.0000 2.4324
2.2759 1.0000 2.4324
2.3103 1.0000 2.4324
2.3448 1.0000 2.4324
2.3793 1.0000 2.4324
2.4138 1.0000 2.4324
2.4483 1.0000 2.4324
2.4828 1.0000 2.4324
2.5172 1.0000 2.4324
2.5517 1.0000 2.4324
2.5862 1.0000 2.4324
2.6207 1.0000 2.4324
2.6552 1.0000 2.4324
2.6897 1.0000 2.4324
2.7241 1.0000 2.4324
2.7586 1.0000 2.4324
2.7931 1.0000 2.4324
2.8276 1.0000 2.4324
2.8621 1.0000 2.4324
2.8966 1.0000 2.4324
2.9310 1.0000 2.4324
2.9655 1.0000 2.4324
3.0000 1.0000 2.4324
2.0000 1.0000 2.4662
2.0345 1.0000 2.4662
2.0690 1.0000 2.4662
2.1034 1.0000 2.4662
2.1379 1.0000 2.4662
2.1724 1.0000 2.4662
2.2069 1.0000 2.4662
2.2414 1.0000 2.4662
2.2759 1.0000 2.4662
2.3103 1.0000 2.4662
2.3448 1.0000 2.4662
2.3793 1.0000 2.4662
2.4138 1.0000 2.4662
2.4483 1.0000 2.4662
2.4828 1.0000 2.4662
2.5172 1.0000 2.4662
2.5517 1.0000 2.4662
2.5862 1.0000 2.4662
2.6207 1.0000 2.4662
2.6552 1.0000 2.4662
2.6897 1.0000 2.4662
2.7241 1.0000 2.4662
2.7586 1.0000 2.4662
2.7931 1.0000 2.4662
2.8276 1.0000 2.4662
2.8621 1.0000 2.4662
2.8966 1.0000 2.4662
2.9310 1.0000 2.4662
2.9655 1.0000 2.4662
3.0000 1.0000 2.4662
2.0000 1.0000 2.5000
2.0345 1.0000 2.5000
2.0690 1.0000 2.5000
2.1034 1.0000 2.5000
2.1379 1.0000 2.5000
2.1724 1.0000 2.5000
2.2069 1.0000 2.5000
2.2414 1.0000 2.5000
2.2759 1.0000 2.5000
2.3103 1.0000 2.5000
2.3448 1.0000 2.5000
2.3793 1.0000 2.5000
2.4138 1.0000 2.5000
2.4483 1.0000 2.5000
2.4828 1.0000 2.5000
2.5172 1.0000 2.5000
2.5517 1.0000 2.5000
2.5862 1.0000 2.5000
2.6207 1.0000 2.5000
2.6552 1.0000 2.5000
2.6897 1.0000 2.5000
2.7241 1.0000 2.5000
2.7586 1.0000 2.5000
2.7931 1.0000 2.5000
2.8276 1.0000 2.5000
2.8621 1.0000 2.5000
2.8966 1.0000 2.5000
2.9310 1.0000 2.5000
2.9655 1.0000 2.5000
3.0000 1.0000 2.5000
2.0000 0.0000 0.0000
2.0000 0.0345 0.0000
2.0000 0.0690 0.0000
2.0000 0.1034 0.0000
2.0000 0.1379 0.0000
2.0000 0.1724 0.0000
2.0000 0.2069 0.0000
2.0000 0.2414 0.0000
2.0000 0.2759 0.0000
2.0000 0.3103 0.0000
2.0000 0.3448 0.0000
2.0000 0.3793 0.0000
2.0000 0.4138 0.0000
2.0000 0.4483 0.0000
2.0000 0.4828 0.0000
2.0000 0.5172 0.0000
2.0000 0.5517 0.0000
2.0000 0.5862 0.0000
2.0000 0.6207 0.0000
2.0000 0.6552 0.0000
2.0000 0.6897 0.0000
2.0000 0.7241 0.0000
2.0000 0.7586 0.0000
2.0000 0.7931 0.0000
2.0000 0.8276 0.0000
2.0000 0.8621 0.0000
2.0000 0.8966 0.0000
2.0000 0.9310 0.0000
2.0000 0.9655 0.0000
2.0000 1.0000 0.0000
2.0000 0.0000 0.0338
2.0000 0.0345 0.0338
2.0000 0.0690 0.0338
2.0000 0.1034 0.0338
2.0000 0.1379 0.0338
2.0000 0.1724 0.0338
2.0000 0.2069 0.0338
2.0000 0.2414 0.0338
2.0000 0.2759 0.0338
2.0000 0.3103 0.0338
2.0000 0.3448 0.0338
2.0000 0.3793 0.0338
2.0000 0.4138 0.0338
2.0000 0.4483 0.0338
2.0000 0.4828 0.0338
2.0000 0.5172 0.0338
2.0000 0.5517 0.0338
2.0000 0.5862 0.0338
2.0000 0.6207 0.0338
2.0000 0.6552 0.0338
2.0000 0.6897 0.0338
2.0000 0.7241 0.0338
2.0000 0.7586 0.0338
2.0000 0.7931 0.0338
2.0000 0.8276 0.0338
2.0000 0.8621 0.0338
2.0000 0.8966 0.0338
